210.000000 212.000000 341.000000 
210.000000 214.000000 342.250000 
210.000000 216.000000 344.250000 
210.000000 218.000000 337.500000 
210.000000 220.000000 344.750000 
210.000000 222.000000 341.000000 
210.000000 224.000000 337.500000 
210.000000 226.000000 339.750000 
210.000000 228.000000 341.750000 
210.000000 230.000000 342.000000 
210.000000 232.000000 337.000000 
210.000000 234.000000 335.000000 
210.000000 236.000000 335.000000 
210.000000 238.000000 338.500000 
210.000000 240.000000 336.250000 
210.000000 242.000000 337.000000 
210.000000 244.000000 335.250000 
210.000000 246.000000 335.250000 
210.000000 248.000000 334.750000 
210.000000 250.000000 339.750000 
210.000000 252.000000 341.250000 
210.000000 254.000000 338.750000 
210.000000 256.000000 340.500000 
210.000000 258.000000 335.750000 
210.000000 260.000000 338.500000 
210.000000 262.000000 341.000000 
210.000000 264.000000 335.500000 
210.000000 266.000000 339.750000 
210.000000 268.000000 336.250000 
210.000000 270.000000 338.750000 
210.000000 272.000000 339.500000 
210.000000 274.000000 336.750000 
210.000000 276.000000 337.750000 
210.000000 278.000000 337.500000 
210.000000 280.000000 336.250000 
210.000000 282.000000 335.250000 
210.000000 284.000000 339.250000 
210.000000 286.000000 339.250000 
210.000000 288.000000 334.750000 
210.000000 290.000000 338.750000 
210.000000 292.000000 337.000000 
210.000000 294.000000 338.000000 
210.000000 296.000000 338.000000 
210.000000 298.000000 334.500000 
210.000000 300.000000 332.000000 
210.000000 302.000000 334.000000 
210.000000 304.000000 332.000000 
210.000000 306.000000 334.000000 
210.000000 308.000000 332.500000 
210.000000 310.000000 332.250000 
210.000000 312.000000 331.750000 
210.000000 314.000000 332.750000 
210.000000 316.000000 340.000000 
210.000000 318.000000 336.000000 
210.000000 320.000000 334.750000 
210.000000 322.000000 334.250000 
210.000000 324.000000 336.500000 
210.000000 326.000000 337.750000 
210.000000 328.000000 333.750000 
210.000000 330.000000 338.250000 
210.000000 332.000000 341.500000 
210.000000 334.000000 334.750000 
210.000000 336.000000 339.250000 
210.000000 338.000000 337.000000 
210.000000 340.000000 342.750000 
210.000000 342.000000 338.750000 
210.000000 344.000000 340.500000 
210.000000 346.000000 338.250000 
210.000000 348.000000 340.500000 
210.000000 350.000000 340.250000 
210.000000 352.000000 341.250000 
210.000000 354.000000 344.750000 
210.000000 356.000000 355.000000 
210.000000 358.000000 348.500000 
210.000000 360.000000 345.750000 
210.000000 362.000000 343.750000 
210.000000 364.000000 347.250000 
210.000000 366.000000 346.500000 
210.000000 368.000000 348.750000 
210.000000 370.000000 349.500000 
210.000000 372.000000 353.000000 
210.000000 374.000000 359.500000 
210.000000 376.000000 362.750000 
210.000000 378.000000 359.500000 
210.000000 380.000000 357.500000 
210.000000 382.000000 362.250000 
210.000000 384.000000 363.750000 
210.000000 386.000000 365.000000 
210.000000 388.000000 362.500000 
210.000000 390.000000 375.750000 
210.000000 392.000000 372.250000 
210.000000 394.000000 374.000000 
210.000000 396.000000 372.250000 
210.000000 398.000000 365.500000 
210.000000 400.000000 375.750000 
210.000000 402.000000 379.000000 
210.000000 404.000000 380.500000 
210.000000 406.000000 379.500000 
210.000000 408.000000 377.000000 
210.000000 410.000000 379.750000 
210.000000 412.000000 378.000000 
210.000000 414.000000 380.250000 
210.000000 416.000000 387.250000 
210.000000 418.000000 383.500000 
210.000000 420.000000 388.750000 
210.000000 422.000000 386.250000 
210.000000 424.000000 388.000000 
210.000000 426.000000 397.750000 
210.000000 428.000000 390.000000 
210.000000 430.000000 393.500000 
210.000000 432.000000 389.250000 
210.000000 434.000000 391.000000 
210.000000 436.000000 389.750000 
210.000000 438.000000 392.750000 
210.000000 440.000000 403.500000 
210.000000 442.000000 402.500000 
210.000000 444.000000 399.750000 
210.000000 446.000000 401.250000 
210.000000 448.000000 398.750000 
210.000000 450.000000 400.000000 
210.000000 452.000000 409.000000 
210.000000 454.000000 399.750000 
210.000000 456.000000 403.500000 
210.000000 458.000000 403.500000 
210.000000 460.000000 398.250000 
210.000000 462.000000 403.250000 
210.000000 464.000000 402.500000 
210.000000 466.000000 406.250000 
210.000000 468.000000 406.750000 
210.000000 470.000000 406.750000 
210.000000 472.000000 406.750000 
210.000000 474.000000 405.250000 
210.000000 476.000000 409.000000 
210.000000 478.000000 410.750000 
210.000000 480.000000 407.750000 
210.000000 482.000000 408.000000 
210.000000 484.000000 405.750000 
210.000000 486.000000 411.750000 
210.000000 488.000000 404.500000 
210.000000 490.000000 411.500000 
210.000000 492.000000 414.500000 
210.000000 494.000000 412.250000 
210.000000 496.000000 412.500000 
210.000000 498.000000 410.000000 
210.000000 500.000000 413.250000 
210.000000 502.000000 413.000000 
210.000000 504.000000 413.000000 
210.000000 506.000000 411.500000 
210.000000 508.000000 415.750000 
210.000000 510.000000 416.750000 
210.000000 512.000000 414.000000 
210.000000 514.000000 418.250000 
212.000000 2.000000 456.750000 
212.000000 4.000000 459.500000 
212.000000 6.000000 456.000000 
212.000000 8.000000 460.000000 
212.000000 10.000000 458.250000 
212.000000 12.000000 458.750000 
212.000000 14.000000 455.500000 
212.000000 16.000000 456.500000 
212.000000 18.000000 457.500000 
212.000000 20.000000 450.250000 
212.000000 22.000000 455.250000 
212.000000 24.000000 452.750000 
212.000000 26.000000 448.500000 
212.000000 28.000000 451.000000 
212.000000 30.000000 448.250000 
212.000000 32.000000 452.250000 
212.000000 34.000000 453.000000 
212.000000 36.000000 449.250000 
212.000000 38.000000 446.750000 
212.000000 40.000000 445.750000 
212.000000 42.000000 445.000000 
212.000000 44.000000 444.250000 
212.000000 46.000000 443.250000 
212.000000 48.000000 443.500000 
212.000000 50.000000 446.250000 
212.000000 52.000000 443.250000 
212.000000 54.000000 438.000000 
212.000000 56.000000 434.750000 
212.000000 58.000000 438.750000 
212.000000 60.000000 434.250000 
212.000000 62.000000 440.750000 
212.000000 64.000000 439.750000 
212.000000 66.000000 434.250000 
212.000000 68.000000 433.500000 
212.000000 70.000000 436.500000 
212.000000 72.000000 433.000000 
212.000000 74.000000 432.250000 
212.000000 76.000000 428.500000 
212.000000 78.000000 430.250000 
212.000000 80.000000 429.500000 
212.000000 82.000000 433.750000 
212.000000 84.000000 431.250000 
212.000000 86.000000 425.000000 
212.000000 88.000000 423.500000 
212.000000 90.000000 426.250000 
212.000000 92.000000 420.250000 
212.000000 94.000000 425.750000 
212.000000 96.000000 427.750000 
212.000000 98.000000 423.500000 
212.000000 100.000000 416.250000 
212.000000 102.000000 420.500000 
212.000000 104.000000 417.750000 
212.000000 106.000000 415.750000 
212.000000 108.000000 414.750000 
212.000000 110.000000 413.500000 
212.000000 112.000000 414.500000 
212.000000 114.000000 411.750000 
212.000000 116.000000 413.000000 
212.000000 118.000000 410.500000 
212.000000 120.000000 405.500000 
212.000000 122.000000 404.500000 
212.000000 124.000000 403.000000 
212.000000 126.000000 396.750000 
212.000000 128.000000 399.500000 
212.000000 130.000000 401.000000 
212.000000 132.000000 396.750000 
212.000000 134.000000 399.000000 
212.000000 136.000000 399.000000 
212.000000 138.000000 394.500000 
212.000000 140.000000 392.500000 
212.000000 142.000000 398.000000 
212.000000 144.000000 388.750000 
212.000000 146.000000 388.000000 
212.000000 148.000000 393.000000 
212.000000 150.000000 383.000000 
212.000000 152.000000 385.250000 
212.000000 154.000000 381.750000 
212.000000 156.000000 379.750000 
212.000000 158.000000 383.250000 
212.000000 160.000000 380.250000 
212.000000 162.000000 376.750000 
212.000000 164.000000 369.500000 
212.000000 166.000000 371.000000 
212.000000 168.000000 366.000000 
212.000000 170.000000 364.000000 
212.000000 172.000000 368.750000 
212.000000 174.000000 374.750000 
212.000000 176.000000 360.750000 
212.000000 178.000000 363.000000 
212.000000 180.000000 359.750000 
212.000000 182.000000 365.250000 
212.000000 184.000000 359.250000 
212.000000 186.000000 352.000000 
212.000000 188.000000 356.500000 
212.000000 190.000000 354.250000 
212.000000 192.000000 353.000000 
212.000000 194.000000 349.250000 
212.000000 196.000000 346.250000 
212.000000 198.000000 349.750000 
212.000000 200.000000 354.750000 
212.000000 202.000000 349.750000 
212.000000 204.000000 348.000000 
212.000000 206.000000 341.750000 
212.000000 208.000000 340.750000 
212.000000 210.000000 345.250000 
212.000000 212.000000 346.250000 
212.000000 214.000000 340.000000 
212.000000 216.000000 341.500000 
212.000000 218.000000 341.000000 
212.000000 220.000000 341.250000 
212.000000 222.000000 336.250000 
212.000000 224.000000 344.750000 
212.000000 226.000000 337.250000 
212.000000 228.000000 335.500000 
212.000000 230.000000 339.250000 
212.000000 232.000000 334.750000 
212.000000 234.000000 338.250000 
212.000000 236.000000 337.500000 
212.000000 238.000000 334.750000 
212.000000 240.000000 334.750000 
212.000000 242.000000 339.250000 
212.000000 244.000000 339.750000 
212.000000 246.000000 335.750000 
212.000000 248.000000 332.000000 
212.000000 250.000000 335.750000 
212.000000 252.000000 335.000000 
212.000000 254.000000 335.250000 
212.000000 256.000000 340.000000 
212.000000 258.000000 335.500000 
212.000000 260.000000 335.500000 
212.000000 262.000000 341.750000 
212.000000 264.000000 333.250000 
212.000000 266.000000 335.500000 
212.000000 268.000000 336.500000 
212.000000 270.000000 337.750000 
212.000000 272.000000 336.000000 
212.000000 274.000000 336.000000 
212.000000 276.000000 340.250000 
212.000000 278.000000 335.500000 
212.000000 280.000000 336.500000 
212.000000 282.000000 334.750000 
212.000000 284.000000 338.500000 
212.000000 286.000000 334.000000 
212.000000 288.000000 338.250000 
212.000000 290.000000 334.250000 
212.000000 292.000000 337.000000 
212.000000 294.000000 337.500000 
212.000000 296.000000 334.500000 
212.000000 298.000000 332.750000 
212.000000 300.000000 332.500000 
212.000000 302.000000 330.750000 
212.000000 304.000000 335.750000 
212.000000 306.000000 336.250000 
212.000000 308.000000 331.750000 
212.000000 310.000000 335.500000 
212.000000 312.000000 332.250000 
212.000000 314.000000 335.250000 
212.000000 316.000000 333.750000 
212.000000 318.000000 334.500000 
212.000000 320.000000 338.000000 
212.000000 322.000000 335.500000 
212.000000 324.000000 337.750000 
212.000000 326.000000 336.500000 
212.000000 328.000000 340.000000 
212.000000 330.000000 334.750000 
212.000000 332.000000 335.250000 
212.000000 334.000000 338.500000 
212.000000 336.000000 341.750000 
212.000000 338.000000 336.000000 
212.000000 340.000000 344.250000 
212.000000 342.000000 342.500000 
212.000000 344.000000 340.750000 
212.000000 346.000000 347.000000 
212.000000 348.000000 345.000000 
212.000000 350.000000 342.500000 
212.000000 352.000000 344.500000 
212.000000 354.000000 350.250000 
212.000000 356.000000 351.000000 
212.000000 358.000000 347.250000 
212.000000 360.000000 341.000000 
212.000000 362.000000 349.000000 
212.000000 364.000000 352.750000 
212.000000 366.000000 345.000000 
212.000000 368.000000 359.000000 
212.000000 370.000000 355.250000 
212.000000 372.000000 362.000000 
212.000000 374.000000 357.750000 
212.000000 376.000000 360.500000 
212.000000 378.000000 357.250000 
212.000000 380.000000 362.750000 
212.000000 382.000000 360.750000 
212.000000 384.000000 367.500000 
212.000000 386.000000 366.500000 
212.000000 388.000000 369.500000 
212.000000 390.000000 372.750000 
212.000000 392.000000 367.500000 
212.000000 394.000000 379.000000 
212.000000 396.000000 384.500000 
212.000000 398.000000 376.250000 
212.000000 400.000000 375.500000 
212.000000 402.000000 374.000000 
212.000000 404.000000 379.250000 
212.000000 406.000000 380.750000 
212.000000 408.000000 376.750000 
212.000000 410.000000 382.250000 
212.000000 412.000000 378.750000 
212.000000 414.000000 382.750000 
212.000000 416.000000 380.500000 
212.000000 418.000000 384.250000 
212.000000 420.000000 390.000000 
212.000000 422.000000 383.250000 
212.000000 424.000000 397.250000 
212.000000 426.000000 386.750000 
212.000000 428.000000 393.000000 
212.000000 430.000000 393.750000 
212.000000 432.000000 387.000000 
212.000000 434.000000 385.750000 
212.000000 436.000000 390.500000 
212.000000 438.000000 393.250000 
212.000000 440.000000 393.500000 
212.000000 442.000000 389.750000 
212.000000 444.000000 392.250000 
212.000000 446.000000 397.750000 
212.000000 448.000000 394.250000 
212.000000 450.000000 394.500000 
212.000000 452.000000 395.250000 
212.000000 454.000000 398.500000 
212.000000 456.000000 404.000000 
212.000000 458.000000 396.000000 
212.000000 460.000000 396.000000 
212.000000 462.000000 399.250000 
212.000000 464.000000 397.250000 
212.000000 466.000000 399.250000 
212.000000 468.000000 406.750000 
212.000000 470.000000 402.250000 
212.000000 472.000000 402.000000 
212.000000 474.000000 405.250000 
212.000000 476.000000 404.500000 
212.000000 478.000000 406.750000 
212.000000 480.000000 406.500000 
212.000000 482.000000 405.250000 
212.000000 484.000000 402.750000 
212.000000 486.000000 406.250000 
212.000000 488.000000 407.250000 
212.000000 490.000000 408.750000 
212.000000 492.000000 410.750000 
212.000000 494.000000 407.250000 
212.000000 496.000000 413.250000 
212.000000 498.000000 415.750000 
212.000000 500.000000 408.250000 
212.000000 502.000000 407.000000 
212.000000 504.000000 413.250000 
212.000000 506.000000 413.250000 
212.000000 508.000000 408.500000 
212.000000 510.000000 408.750000 
212.000000 512.000000 414.250000 
212.000000 514.000000 412.500000 
214.000000 2.000000 459.750000 
214.000000 4.000000 454.250000 
214.000000 6.000000 458.250000 
214.000000 8.000000 458.250000 
214.000000 10.000000 457.500000 
214.000000 12.000000 453.250000 
214.000000 14.000000 452.000000 
214.000000 16.000000 457.500000 
214.000000 18.000000 450.250000 
214.000000 20.000000 452.750000 
214.000000 22.000000 454.750000 
214.000000 24.000000 446.500000 
214.000000 26.000000 452.250000 
214.000000 28.000000 453.250000 
214.000000 30.000000 450.250000 
214.000000 32.000000 449.500000 
214.000000 34.000000 447.750000 
214.000000 36.000000 445.250000 
214.000000 38.000000 445.250000 
214.000000 40.000000 440.500000 
214.000000 42.000000 444.250000 
214.000000 44.000000 444.250000 
214.000000 46.000000 441.750000 
214.000000 48.000000 439.500000 
214.000000 50.000000 443.000000 
214.000000 52.000000 440.250000 
214.000000 54.000000 437.000000 
214.000000 56.000000 435.000000 
214.000000 58.000000 435.000000 
214.000000 60.000000 441.000000 
214.000000 62.000000 435.250000 
214.000000 64.000000 437.750000 
214.000000 66.000000 437.000000 
214.000000 68.000000 436.500000 
214.000000 70.000000 434.000000 
214.000000 72.000000 431.750000 
214.000000 74.000000 432.500000 
214.000000 76.000000 427.750000 
214.000000 78.000000 428.500000 
214.000000 80.000000 426.000000 
214.000000 82.000000 428.750000 
214.000000 84.000000 425.500000 
214.000000 86.000000 429.250000 
214.000000 88.000000 423.250000 
214.000000 90.000000 423.750000 
214.000000 92.000000 425.000000 
214.000000 94.000000 418.500000 
214.000000 96.000000 418.250000 
214.000000 98.000000 418.250000 
214.000000 100.000000 420.000000 
214.000000 102.000000 424.000000 
214.000000 104.000000 416.750000 
214.000000 106.000000 417.500000 
214.000000 108.000000 414.500000 
214.000000 110.000000 414.500000 
214.000000 112.000000 413.500000 
214.000000 114.000000 412.000000 
214.000000 116.000000 411.250000 
214.000000 118.000000 407.250000 
214.000000 120.000000 408.250000 
214.000000 122.000000 409.250000 
214.000000 124.000000 405.500000 
214.000000 126.000000 403.250000 
214.000000 128.000000 406.250000 
214.000000 130.000000 403.250000 
214.000000 132.000000 396.500000 
214.000000 134.000000 401.000000 
214.000000 136.000000 398.000000 
214.000000 138.000000 407.500000 
214.000000 140.000000 395.000000 
214.000000 142.000000 399.000000 
214.000000 144.000000 397.000000 
214.000000 146.000000 391.500000 
214.000000 148.000000 389.250000 
214.000000 150.000000 385.750000 
214.000000 152.000000 386.000000 
214.000000 154.000000 389.000000 
214.000000 156.000000 380.500000 
214.000000 158.000000 378.250000 
214.000000 160.000000 379.500000 
214.000000 162.000000 386.250000 
214.000000 164.000000 376.500000 
214.000000 166.000000 374.750000 
214.000000 168.000000 381.000000 
214.000000 170.000000 369.250000 
214.000000 172.000000 373.250000 
214.000000 174.000000 370.250000 
214.000000 176.000000 366.250000 
214.000000 178.000000 372.000000 
214.000000 180.000000 360.000000 
214.000000 182.000000 367.250000 
214.000000 184.000000 366.500000 
214.000000 186.000000 363.750000 
214.000000 188.000000 361.500000 
214.000000 190.000000 351.750000 
214.000000 192.000000 358.500000 
214.000000 194.000000 351.000000 
214.000000 196.000000 355.250000 
214.000000 198.000000 346.750000 
214.000000 200.000000 351.000000 
214.000000 202.000000 345.500000 
214.000000 204.000000 352.750000 
214.000000 206.000000 349.500000 
214.000000 208.000000 346.000000 
214.000000 210.000000 351.500000 
214.000000 212.000000 342.250000 
214.000000 214.000000 345.750000 
214.000000 216.000000 343.750000 
214.000000 218.000000 344.250000 
214.000000 220.000000 346.250000 
214.000000 222.000000 343.250000 
214.000000 224.000000 337.750000 
214.000000 226.000000 336.750000 
214.000000 228.000000 340.000000 
214.000000 230.000000 338.000000 
214.000000 232.000000 335.250000 
214.000000 234.000000 339.750000 
214.000000 236.000000 343.500000 
214.000000 238.000000 336.750000 
214.000000 240.000000 334.750000 
214.000000 242.000000 336.250000 
214.000000 244.000000 337.250000 
214.000000 246.000000 336.500000 
214.000000 248.000000 335.000000 
214.000000 250.000000 334.500000 
214.000000 252.000000 341.250000 
214.000000 254.000000 334.750000 
214.000000 256.000000 340.250000 
214.000000 258.000000 338.000000 
214.000000 260.000000 336.000000 
214.000000 262.000000 340.250000 
214.000000 264.000000 336.000000 
214.000000 266.000000 337.750000 
214.000000 268.000000 344.500000 
214.000000 270.000000 338.000000 
214.000000 272.000000 336.250000 
214.000000 274.000000 337.750000 
214.000000 276.000000 334.250000 
214.000000 278.000000 339.500000 
214.000000 280.000000 335.250000 
214.000000 282.000000 335.000000 
214.000000 284.000000 338.000000 
214.000000 286.000000 340.250000 
214.000000 288.000000 332.250000 
214.000000 290.000000 334.750000 
214.000000 292.000000 337.500000 
214.000000 294.000000 334.500000 
214.000000 296.000000 334.250000 
214.000000 298.000000 339.500000 
214.000000 300.000000 333.500000 
214.000000 302.000000 333.750000 
214.000000 304.000000 337.500000 
214.000000 306.000000 333.750000 
214.000000 308.000000 331.500000 
214.000000 310.000000 332.750000 
214.000000 312.000000 333.750000 
214.000000 314.000000 338.750000 
214.000000 316.000000 334.500000 
214.000000 318.000000 334.250000 
214.000000 320.000000 337.500000 
214.000000 322.000000 340.750000 
214.000000 324.000000 336.250000 
214.000000 326.000000 335.000000 
214.000000 328.000000 340.000000 
214.000000 330.000000 336.750000 
214.000000 332.000000 339.000000 
214.000000 334.000000 338.250000 
214.000000 336.000000 338.500000 
214.000000 338.000000 334.750000 
214.000000 340.000000 342.250000 
214.000000 342.000000 344.250000 
214.000000 344.000000 344.250000 
214.000000 346.000000 346.000000 
214.000000 348.000000 340.250000 
214.000000 350.000000 349.000000 
214.000000 352.000000 346.000000 
214.000000 354.000000 346.500000 
214.000000 356.000000 347.750000 
214.000000 358.000000 353.000000 
214.000000 360.000000 355.250000 
214.000000 362.000000 349.000000 
214.000000 364.000000 354.500000 
214.000000 366.000000 356.000000 
214.000000 368.000000 358.250000 
214.000000 370.000000 354.250000 
214.000000 372.000000 353.500000 
214.000000 374.000000 355.000000 
214.000000 376.000000 356.250000 
214.000000 378.000000 358.250000 
214.000000 380.000000 360.000000 
214.000000 382.000000 366.000000 
214.000000 384.000000 369.750000 
214.000000 386.000000 371.000000 
214.000000 388.000000 365.750000 
214.000000 390.000000 370.750000 
214.000000 392.000000 368.250000 
214.000000 394.000000 366.500000 
214.000000 396.000000 382.000000 
214.000000 398.000000 381.250000 
214.000000 400.000000 375.250000 
214.000000 402.000000 373.250000 
214.000000 404.000000 386.000000 
214.000000 406.000000 383.250000 
214.000000 408.000000 378.500000 
214.000000 410.000000 381.250000 
214.000000 412.000000 380.500000 
214.000000 414.000000 388.750000 
214.000000 416.000000 379.000000 
214.000000 418.000000 383.750000 
214.000000 420.000000 400.500000 
214.000000 422.000000 398.750000 
214.000000 424.000000 386.000000 
214.000000 426.000000 391.500000 
214.000000 428.000000 383.000000 
214.000000 430.000000 399.500000 
214.000000 432.000000 393.250000 
214.000000 434.000000 392.500000 
214.000000 436.000000 397.750000 
214.000000 438.000000 397.250000 
214.000000 440.000000 404.000000 
214.000000 442.000000 396.750000 
214.000000 444.000000 393.750000 
214.000000 446.000000 396.500000 
214.000000 448.000000 406.000000 
214.000000 450.000000 406.500000 
214.000000 452.000000 395.250000 
214.000000 454.000000 402.500000 
214.000000 456.000000 410.000000 
214.000000 458.000000 409.000000 
214.000000 460.000000 402.000000 
214.000000 462.000000 400.000000 
214.000000 464.000000 400.750000 
214.000000 466.000000 400.750000 
214.000000 468.000000 406.000000 
214.000000 470.000000 401.500000 
214.000000 472.000000 404.500000 
214.000000 474.000000 403.000000 
214.000000 476.000000 409.000000 
214.000000 478.000000 410.000000 
214.000000 480.000000 405.000000 
214.000000 482.000000 411.500000 
214.000000 484.000000 407.750000 
214.000000 486.000000 406.750000 
214.000000 488.000000 411.250000 
214.000000 490.000000 403.500000 
214.000000 492.000000 414.250000 
214.000000 494.000000 414.250000 
214.000000 496.000000 412.750000 
214.000000 498.000000 418.500000 
214.000000 500.000000 414.000000 
214.000000 502.000000 412.750000 
214.000000 504.000000 421.000000 
214.000000 506.000000 413.000000 
214.000000 508.000000 413.250000 
214.000000 510.000000 417.250000 
214.000000 512.000000 417.250000 
214.000000 514.000000 413.500000 
216.000000 2.000000 458.250000 
216.000000 4.000000 458.000000 
216.000000 6.000000 461.250000 
216.000000 8.000000 454.500000 
216.000000 10.000000 457.750000 
216.000000 12.000000 457.750000 
216.000000 14.000000 456.500000 
216.000000 16.000000 455.500000 
216.000000 18.000000 454.250000 
216.000000 20.000000 457.500000 
216.000000 22.000000 453.000000 
216.000000 24.000000 451.250000 
216.000000 26.000000 451.250000 
216.000000 28.000000 449.500000 
216.000000 30.000000 457.500000 
216.000000 32.000000 453.750000 
216.000000 34.000000 450.500000 
216.000000 36.000000 449.000000 
216.000000 38.000000 447.500000 
216.000000 40.000000 452.250000 
216.000000 42.000000 443.000000 
216.000000 44.000000 443.250000 
216.000000 46.000000 443.500000 
216.000000 48.000000 442.750000 
216.000000 50.000000 446.500000 
216.000000 52.000000 441.000000 
216.000000 54.000000 442.000000 
216.000000 56.000000 444.000000 
216.000000 58.000000 447.500000 
216.000000 60.000000 443.000000 
216.000000 62.000000 442.250000 
216.000000 64.000000 440.000000 
216.000000 66.000000 439.750000 
216.000000 68.000000 439.750000 
216.000000 70.000000 440.750000 
216.000000 72.000000 439.750000 
216.000000 74.000000 441.750000 
216.000000 76.000000 436.000000 
216.000000 78.000000 436.500000 
216.000000 80.000000 436.000000 
216.000000 82.000000 428.000000 
216.000000 84.000000 431.250000 
216.000000 86.000000 431.250000 
216.000000 88.000000 427.250000 
216.000000 90.000000 427.000000 
216.000000 92.000000 431.250000 
216.000000 94.000000 424.750000 
216.000000 96.000000 425.750000 
216.000000 98.000000 420.250000 
216.000000 100.000000 425.250000 
216.000000 102.000000 423.750000 
216.000000 104.000000 421.500000 
216.000000 106.000000 415.750000 
216.000000 108.000000 416.250000 
216.000000 110.000000 412.750000 
216.000000 112.000000 419.250000 
216.000000 114.000000 410.500000 
216.000000 116.000000 416.500000 
216.000000 118.000000 408.500000 
216.000000 120.000000 406.250000 
216.000000 122.000000 415.250000 
216.000000 124.000000 408.000000 
216.000000 126.000000 403.250000 
216.000000 128.000000 407.750000 
216.000000 130.000000 403.750000 
216.000000 132.000000 400.750000 
216.000000 134.000000 414.000000 
216.000000 136.000000 400.750000 
216.000000 138.000000 395.000000 
216.000000 140.000000 395.000000 
216.000000 142.000000 400.500000 
216.000000 144.000000 396.000000 
216.000000 146.000000 393.500000 
216.000000 148.000000 388.000000 
216.000000 150.000000 392.500000 
216.000000 152.000000 383.500000 
216.000000 154.000000 386.250000 
216.000000 156.000000 382.500000 
216.000000 158.000000 382.500000 
216.000000 160.000000 381.000000 
216.000000 162.000000 377.000000 
216.000000 164.000000 379.000000 
216.000000 166.000000 370.500000 
216.000000 168.000000 377.250000 
216.000000 170.000000 367.250000 
216.000000 172.000000 371.750000 
216.000000 174.000000 369.250000 
216.000000 176.000000 366.750000 
216.000000 178.000000 367.000000 
216.000000 180.000000 361.250000 
216.000000 182.000000 363.000000 
216.000000 184.000000 362.500000 
216.000000 186.000000 364.500000 
216.000000 188.000000 355.500000 
216.000000 190.000000 356.750000 
216.000000 192.000000 359.500000 
216.000000 194.000000 362.500000 
216.000000 196.000000 359.000000 
216.000000 198.000000 355.250000 
216.000000 200.000000 349.750000 
216.000000 202.000000 349.500000 
216.000000 204.000000 348.750000 
216.000000 206.000000 349.250000 
216.000000 208.000000 349.000000 
216.000000 210.000000 344.500000 
216.000000 212.000000 343.500000 
216.000000 214.000000 344.500000 
216.000000 216.000000 342.750000 
216.000000 218.000000 342.750000 
216.000000 220.000000 345.750000 
216.000000 222.000000 336.500000 
216.000000 224.000000 347.000000 
216.000000 226.000000 344.750000 
216.000000 228.000000 336.750000 
216.000000 230.000000 340.250000 
216.000000 232.000000 340.000000 
216.000000 234.000000 337.500000 
216.000000 236.000000 337.500000 
216.000000 238.000000 334.500000 
216.000000 240.000000 333.250000 
216.000000 242.000000 337.250000 
216.000000 244.000000 337.750000 
216.000000 246.000000 336.750000 
216.000000 248.000000 338.250000 
216.000000 250.000000 336.750000 
216.000000 252.000000 339.000000 
216.000000 254.000000 335.250000 
216.000000 256.000000 334.750000 
216.000000 258.000000 337.500000 
216.000000 260.000000 337.500000 
216.000000 262.000000 338.000000 
216.000000 264.000000 340.750000 
216.000000 266.000000 341.500000 
216.000000 268.000000 339.250000 
216.000000 270.000000 341.000000 
216.000000 272.000000 339.750000 
216.000000 274.000000 335.500000 
216.000000 276.000000 337.000000 
216.000000 278.000000 336.750000 
216.000000 280.000000 338.750000 
216.000000 282.000000 339.000000 
216.000000 284.000000 341.750000 
216.000000 286.000000 337.750000 
216.000000 288.000000 335.000000 
216.000000 290.000000 331.500000 
216.000000 292.000000 340.000000 
216.000000 294.000000 334.500000 
216.000000 296.000000 337.750000 
216.000000 298.000000 334.500000 
216.000000 300.000000 333.250000 
216.000000 302.000000 332.250000 
216.000000 304.000000 339.500000 
216.000000 306.000000 331.000000 
216.000000 308.000000 340.000000 
216.000000 310.000000 339.250000 
216.000000 312.000000 334.750000 
216.000000 314.000000 334.500000 
216.000000 316.000000 334.000000 
216.000000 318.000000 338.500000 
216.000000 320.000000 336.250000 
216.000000 322.000000 337.500000 
216.000000 324.000000 334.500000 
216.000000 326.000000 338.250000 
216.000000 328.000000 343.000000 
216.000000 330.000000 340.000000 
216.000000 332.000000 337.500000 
216.000000 334.000000 342.000000 
216.000000 336.000000 341.250000 
216.000000 338.000000 341.500000 
216.000000 340.000000 342.250000 
216.000000 342.000000 340.250000 
216.000000 344.000000 348.500000 
216.000000 346.000000 342.750000 
216.000000 348.000000 344.000000 
216.000000 350.000000 349.500000 
216.000000 352.000000 353.750000 
216.000000 354.000000 344.000000 
216.000000 356.000000 349.750000 
216.000000 358.000000 351.000000 
216.000000 360.000000 347.250000 
216.000000 362.000000 349.000000 
216.000000 364.000000 355.250000 
216.000000 366.000000 354.250000 
216.000000 368.000000 354.500000 
216.000000 370.000000 361.250000 
216.000000 372.000000 355.250000 
216.000000 374.000000 364.000000 
216.000000 376.000000 363.750000 
216.000000 378.000000 364.000000 
216.000000 380.000000 366.250000 
216.000000 382.000000 365.000000 
216.000000 384.000000 371.250000 
216.000000 386.000000 371.500000 
216.000000 388.000000 368.500000 
216.000000 390.000000 370.000000 
216.000000 392.000000 368.750000 
216.000000 394.000000 370.500000 
216.000000 396.000000 379.500000 
216.000000 398.000000 376.500000 
216.000000 400.000000 382.250000 
216.000000 402.000000 374.500000 
216.000000 404.000000 379.500000 
216.000000 406.000000 383.250000 
216.000000 408.000000 381.250000 
216.000000 410.000000 382.000000 
216.000000 412.000000 383.500000 
216.000000 414.000000 387.500000 
216.000000 416.000000 383.250000 
216.000000 418.000000 388.500000 
216.000000 420.000000 387.500000 
216.000000 422.000000 388.250000 
216.000000 424.000000 387.750000 
216.000000 426.000000 392.250000 
216.000000 428.000000 388.500000 
216.000000 430.000000 396.000000 
216.000000 432.000000 400.000000 
216.000000 434.000000 392.250000 
216.000000 436.000000 396.000000 
216.000000 438.000000 397.750000 
216.000000 440.000000 393.250000 
216.000000 442.000000 395.250000 
216.000000 444.000000 399.250000 
216.000000 446.000000 393.750000 
216.000000 448.000000 400.750000 
216.000000 450.000000 404.250000 
216.000000 452.000000 400.750000 
216.000000 454.000000 398.500000 
216.000000 456.000000 410.000000 
216.000000 458.000000 400.750000 
216.000000 460.000000 398.750000 
216.000000 462.000000 399.000000 
216.000000 464.000000 406.500000 
216.000000 466.000000 400.500000 
216.000000 468.000000 400.750000 
216.000000 470.000000 409.750000 
216.000000 472.000000 407.250000 
216.000000 474.000000 404.500000 
216.000000 476.000000 404.250000 
216.000000 478.000000 405.000000 
216.000000 480.000000 413.250000 
216.000000 482.000000 409.500000 
216.000000 484.000000 409.750000 
216.000000 486.000000 408.500000 
216.000000 488.000000 412.000000 
216.000000 490.000000 409.000000 
216.000000 492.000000 407.500000 
216.000000 494.000000 405.000000 
216.000000 496.000000 411.250000 
216.000000 498.000000 412.000000 
216.000000 500.000000 414.500000 
216.000000 502.000000 412.250000 
216.000000 504.000000 412.500000 
216.000000 506.000000 413.000000 
216.000000 508.000000 413.000000 
216.000000 510.000000 417.250000 
216.000000 512.000000 413.000000 
216.000000 514.000000 411.000000 
218.000000 2.000000 463.250000 
218.000000 4.000000 458.000000 
218.000000 6.000000 458.250000 
218.000000 8.000000 457.750000 
218.000000 10.000000 461.000000 
218.000000 12.000000 461.500000 
218.000000 14.000000 456.750000 
218.000000 16.000000 457.750000 
218.000000 18.000000 457.500000 
218.000000 20.000000 452.750000 
218.000000 22.000000 455.000000 
218.000000 24.000000 456.500000 
218.000000 26.000000 452.250000 
218.000000 28.000000 453.000000 
218.000000 30.000000 451.000000 
218.000000 32.000000 451.500000 
218.000000 34.000000 451.750000 
218.000000 36.000000 444.750000 
218.000000 38.000000 444.000000 
218.000000 40.000000 443.250000 
218.000000 42.000000 448.750000 
218.000000 44.000000 450.000000 
218.000000 46.000000 445.250000 
218.000000 48.000000 445.000000 
218.000000 50.000000 446.500000 
218.000000 52.000000 443.750000 
218.000000 54.000000 442.750000 
218.000000 56.000000 439.000000 
218.000000 58.000000 440.750000 
218.000000 60.000000 440.750000 
218.000000 62.000000 438.000000 
218.000000 64.000000 437.000000 
218.000000 66.000000 436.750000 
218.000000 68.000000 433.500000 
218.000000 70.000000 433.500000 
218.000000 72.000000 442.500000 
218.000000 74.000000 436.750000 
218.000000 76.000000 431.250000 
218.000000 78.000000 443.500000 
218.000000 80.000000 428.500000 
218.000000 82.000000 429.250000 
218.000000 84.000000 425.250000 
218.000000 86.000000 428.750000 
218.000000 88.000000 427.750000 
218.000000 90.000000 426.000000 
218.000000 92.000000 424.250000 
218.000000 94.000000 426.000000 
218.000000 96.000000 423.750000 
218.000000 98.000000 427.000000 
218.000000 100.000000 422.750000 
218.000000 102.000000 421.500000 
218.000000 104.000000 415.750000 
218.000000 106.000000 416.500000 
218.000000 108.000000 421.500000 
218.000000 110.000000 416.000000 
218.000000 112.000000 417.750000 
218.000000 114.000000 413.000000 
218.000000 116.000000 415.750000 
218.000000 118.000000 415.000000 
218.000000 120.000000 415.500000 
218.000000 122.000000 409.500000 
218.000000 124.000000 408.000000 
218.000000 126.000000 406.750000 
218.000000 128.000000 410.250000 
218.000000 130.000000 400.500000 
218.000000 132.000000 402.250000 
218.000000 134.000000 404.500000 
218.000000 136.000000 398.500000 
218.000000 138.000000 400.250000 
218.000000 140.000000 395.000000 
218.000000 142.000000 399.000000 
218.000000 144.000000 400.500000 
218.000000 146.000000 396.750000 
218.000000 148.000000 398.750000 
218.000000 150.000000 393.500000 
218.000000 152.000000 389.500000 
218.000000 154.000000 386.500000 
218.000000 156.000000 385.750000 
218.000000 158.000000 384.000000 
218.000000 160.000000 387.500000 
218.000000 162.000000 378.500000 
218.000000 164.000000 388.750000 
218.000000 166.000000 381.000000 
218.000000 168.000000 388.250000 
218.000000 170.000000 374.000000 
218.000000 172.000000 368.500000 
218.000000 174.000000 372.250000 
218.000000 176.000000 371.000000 
218.000000 178.000000 376.500000 
218.000000 180.000000 378.000000 
218.000000 182.000000 366.000000 
218.000000 184.000000 365.750000 
218.000000 186.000000 365.250000 
218.000000 188.000000 362.750000 
218.000000 190.000000 362.250000 
218.000000 192.000000 363.000000 
218.000000 194.000000 360.250000 
218.000000 196.000000 358.500000 
218.000000 198.000000 352.500000 
218.000000 200.000000 351.500000 
218.000000 202.000000 356.000000 
218.000000 204.000000 359.750000 
218.000000 206.000000 347.750000 
218.000000 208.000000 349.000000 
218.000000 210.000000 349.750000 
218.000000 212.000000 341.750000 
218.000000 214.000000 349.750000 
218.000000 216.000000 348.750000 
218.000000 218.000000 344.250000 
218.000000 220.000000 345.500000 
218.000000 222.000000 348.250000 
218.000000 224.000000 345.500000 
218.000000 226.000000 338.250000 
218.000000 228.000000 341.000000 
218.000000 230.000000 338.000000 
218.000000 232.000000 337.000000 
218.000000 234.000000 337.500000 
218.000000 236.000000 337.000000 
218.000000 238.000000 343.250000 
218.000000 240.000000 338.250000 
218.000000 242.000000 338.000000 
218.000000 244.000000 342.000000 
218.000000 246.000000 341.500000 
218.000000 248.000000 335.750000 
218.000000 250.000000 338.000000 
218.000000 252.000000 340.000000 
218.000000 254.000000 338.250000 
218.000000 256.000000 335.500000 
218.000000 258.000000 340.250000 
218.000000 260.000000 335.250000 
218.000000 262.000000 336.750000 
218.000000 264.000000 336.000000 
218.000000 266.000000 341.000000 
218.000000 268.000000 339.750000 
218.000000 270.000000 335.750000 
218.000000 272.000000 337.250000 
218.000000 274.000000 338.250000 
218.000000 276.000000 337.750000 
218.000000 278.000000 338.750000 
218.000000 280.000000 334.250000 
218.000000 282.000000 334.250000 
218.000000 284.000000 341.000000 
218.000000 286.000000 338.750000 
218.000000 288.000000 338.250000 
218.000000 290.000000 341.000000 
218.000000 292.000000 334.000000 
218.000000 294.000000 339.250000 
218.000000 296.000000 337.500000 
218.000000 298.000000 335.750000 
218.000000 300.000000 337.250000 
218.000000 302.000000 347.750000 
218.000000 304.000000 340.500000 
218.000000 306.000000 333.000000 
218.000000 308.000000 337.000000 
218.000000 310.000000 338.250000 
218.000000 312.000000 339.750000 
218.000000 314.000000 337.500000 
218.000000 316.000000 337.000000 
218.000000 318.000000 335.750000 
218.000000 320.000000 340.250000 
218.000000 322.000000 342.000000 
218.000000 324.000000 341.250000 
218.000000 326.000000 335.000000 
218.000000 328.000000 341.500000 
218.000000 330.000000 338.500000 
218.000000 332.000000 344.750000 
218.000000 334.000000 338.250000 
218.000000 336.000000 343.500000 
218.000000 338.000000 345.000000 
218.000000 340.000000 345.000000 
218.000000 342.000000 341.000000 
218.000000 344.000000 340.000000 
218.000000 346.000000 348.000000 
218.000000 348.000000 347.750000 
218.000000 350.000000 343.250000 
218.000000 352.000000 350.000000 
218.000000 354.000000 354.750000 
218.000000 356.000000 359.250000 
218.000000 358.000000 350.750000 
218.000000 360.000000 355.000000 
218.000000 362.000000 359.500000 
218.000000 364.000000 348.500000 
218.000000 366.000000 352.250000 
218.000000 368.000000 360.750000 
218.000000 370.000000 357.500000 
218.000000 372.000000 363.500000 
218.000000 374.000000 362.750000 
218.000000 376.000000 356.250000 
218.000000 378.000000 362.500000 
218.000000 380.000000 365.250000 
218.000000 382.000000 363.000000 
218.000000 384.000000 366.000000 
218.000000 386.000000 366.750000 
218.000000 388.000000 376.000000 
218.000000 390.000000 372.500000 
218.000000 392.000000 374.250000 
218.000000 394.000000 381.250000 
218.000000 396.000000 375.500000 
218.000000 398.000000 384.000000 
218.000000 400.000000 372.500000 
218.000000 402.000000 388.000000 
218.000000 404.000000 383.750000 
218.000000 406.000000 393.500000 
218.000000 408.000000 374.750000 
218.000000 410.000000 385.500000 
218.000000 412.000000 386.000000 
218.000000 414.000000 395.500000 
218.000000 416.000000 384.000000 
218.000000 418.000000 391.750000 
218.000000 420.000000 392.500000 
218.000000 422.000000 388.500000 
218.000000 424.000000 388.500000 
218.000000 426.000000 392.750000 
218.000000 428.000000 399.500000 
218.000000 430.000000 400.250000 
218.000000 432.000000 396.250000 
218.000000 434.000000 396.500000 
218.000000 436.000000 399.500000 
218.000000 438.000000 399.750000 
218.000000 440.000000 395.750000 
218.000000 442.000000 407.750000 
218.000000 444.000000 404.000000 
218.000000 446.000000 405.750000 
218.000000 448.000000 404.000000 
218.000000 450.000000 401.500000 
218.000000 452.000000 401.500000 
218.000000 454.000000 407.500000 
218.000000 456.000000 401.750000 
218.000000 458.000000 403.500000 
218.000000 460.000000 405.250000 
218.000000 462.000000 407.250000 
218.000000 464.000000 406.250000 
218.000000 466.000000 407.000000 
218.000000 468.000000 408.500000 
218.000000 470.000000 409.250000 
218.000000 472.000000 408.250000 
218.000000 474.000000 407.250000 
218.000000 476.000000 414.250000 
218.000000 478.000000 414.500000 
218.000000 480.000000 407.000000 
218.000000 482.000000 413.500000 
218.000000 484.000000 413.250000 
218.000000 486.000000 409.000000 
218.000000 488.000000 409.250000 
218.000000 490.000000 409.500000 
218.000000 492.000000 409.500000 
218.000000 494.000000 413.250000 
218.000000 496.000000 415.500000 
218.000000 498.000000 411.500000 
218.000000 500.000000 414.750000 
218.000000 502.000000 415.000000 
218.000000 504.000000 415.250000 
218.000000 506.000000 412.250000 
218.000000 508.000000 412.250000 
218.000000 510.000000 412.250000 
218.000000 512.000000 413.000000 
218.000000 514.000000 412.750000 
220.000000 2.000000 468.000000 
220.000000 4.000000 460.500000 
220.000000 6.000000 460.750000 
220.000000 8.000000 458.750000 
220.000000 10.000000 464.250000 
220.000000 12.000000 459.000000 
220.000000 14.000000 459.000000 
220.000000 16.000000 459.000000 
220.000000 18.000000 462.500000 
220.000000 20.000000 459.000000 
220.000000 22.000000 461.750000 
220.000000 24.000000 458.000000 
220.000000 26.000000 455.500000 
220.000000 28.000000 454.750000 
220.000000 30.000000 454.750000 
220.000000 32.000000 449.500000 
220.000000 34.000000 451.750000 
220.000000 36.000000 448.000000 
220.000000 38.000000 452.750000 
220.000000 40.000000 454.750000 
220.000000 42.000000 452.250000 
220.000000 44.000000 451.000000 
220.000000 46.000000 446.500000 
220.000000 48.000000 449.750000 
220.000000 50.000000 446.500000 
220.000000 52.000000 449.000000 
220.000000 54.000000 444.750000 
220.000000 56.000000 446.000000 
220.000000 58.000000 443.750000 
220.000000 60.000000 441.750000 
220.000000 62.000000 444.000000 
220.000000 64.000000 444.000000 
220.000000 66.000000 444.750000 
220.000000 68.000000 443.250000 
220.000000 70.000000 440.750000 
220.000000 72.000000 449.000000 
220.000000 74.000000 440.250000 
220.000000 76.000000 440.250000 
220.000000 78.000000 439.500000 
220.000000 80.000000 434.250000 
220.000000 82.000000 433.750000 
220.000000 84.000000 430.500000 
220.000000 86.000000 431.250000 
220.000000 88.000000 429.750000 
220.000000 90.000000 440.000000 
220.000000 92.000000 426.000000 
220.000000 94.000000 428.500000 
220.000000 96.000000 425.750000 
220.000000 98.000000 426.750000 
220.000000 100.000000 423.750000 
220.000000 102.000000 420.750000 
220.000000 104.000000 422.250000 
220.000000 106.000000 422.750000 
220.000000 108.000000 427.500000 
220.000000 110.000000 421.000000 
220.000000 112.000000 412.750000 
220.000000 114.000000 419.500000 
220.000000 116.000000 418.000000 
220.000000 118.000000 415.750000 
220.000000 120.000000 419.750000 
220.000000 122.000000 412.250000 
220.000000 124.000000 412.000000 
220.000000 126.000000 403.250000 
220.000000 128.000000 410.750000 
220.000000 130.000000 406.500000 
220.000000 132.000000 404.500000 
220.000000 134.000000 406.000000 
220.000000 136.000000 407.500000 
220.000000 138.000000 401.500000 
220.000000 140.000000 396.750000 
220.000000 142.000000 402.250000 
220.000000 144.000000 397.250000 
220.000000 146.000000 397.250000 
220.000000 148.000000 398.250000 
220.000000 150.000000 391.250000 
220.000000 152.000000 389.500000 
220.000000 154.000000 387.750000 
220.000000 156.000000 388.750000 
220.000000 158.000000 385.000000 
220.000000 160.000000 398.750000 
220.000000 162.000000 379.000000 
220.000000 164.000000 381.500000 
220.000000 166.000000 388.750000 
220.000000 168.000000 379.000000 
220.000000 170.000000 369.250000 
220.000000 172.000000 372.500000 
220.000000 174.000000 377.000000 
220.000000 176.000000 375.750000 
220.000000 178.000000 364.500000 
220.000000 180.000000 381.500000 
220.000000 182.000000 365.500000 
220.000000 184.000000 382.500000 
220.000000 186.000000 370.250000 
220.000000 188.000000 369.000000 
220.000000 190.000000 363.250000 
220.000000 192.000000 362.750000 
220.000000 194.000000 364.750000 
220.000000 196.000000 367.000000 
220.000000 198.000000 358.500000 
220.000000 200.000000 353.250000 
220.000000 202.000000 353.000000 
220.000000 204.000000 359.250000 
220.000000 206.000000 347.000000 
220.000000 208.000000 348.750000 
220.000000 210.000000 345.750000 
220.000000 212.000000 348.750000 
220.000000 214.000000 343.000000 
220.000000 216.000000 345.000000 
220.000000 218.000000 344.000000 
220.000000 220.000000 343.000000 
220.000000 222.000000 345.500000 
220.000000 224.000000 343.250000 
220.000000 226.000000 344.250000 
220.000000 228.000000 343.750000 
220.000000 230.000000 337.250000 
220.000000 232.000000 341.250000 
220.000000 234.000000 344.000000 
220.000000 236.000000 341.500000 
220.000000 238.000000 337.000000 
220.000000 240.000000 345.000000 
220.000000 242.000000 342.500000 
220.000000 244.000000 342.750000 
220.000000 246.000000 337.250000 
220.000000 248.000000 341.000000 
220.000000 250.000000 339.500000 
220.000000 252.000000 340.250000 
220.000000 254.000000 341.000000 
220.000000 256.000000 335.500000 
220.000000 258.000000 338.000000 
220.000000 260.000000 338.500000 
220.000000 262.000000 334.000000 
220.000000 264.000000 340.500000 
220.000000 266.000000 336.250000 
220.000000 268.000000 338.750000 
220.000000 270.000000 343.250000 
220.000000 272.000000 337.750000 
220.000000 274.000000 335.000000 
220.000000 276.000000 336.250000 
220.000000 278.000000 334.000000 
220.000000 280.000000 341.000000 
220.000000 282.000000 339.500000 
220.000000 284.000000 337.250000 
220.000000 286.000000 333.250000 
220.000000 288.000000 338.000000 
220.000000 290.000000 339.500000 
220.000000 292.000000 338.000000 
220.000000 294.000000 333.000000 
220.000000 296.000000 335.000000 
220.000000 298.000000 337.750000 
220.000000 300.000000 333.000000 
220.000000 302.000000 335.250000 
220.000000 304.000000 338.500000 
220.000000 306.000000 343.500000 
220.000000 308.000000 338.750000 
220.000000 310.000000 336.750000 
220.000000 312.000000 334.500000 
220.000000 314.000000 333.750000 
220.000000 316.000000 341.000000 
220.000000 318.000000 340.250000 
220.000000 320.000000 340.500000 
220.000000 322.000000 339.000000 
220.000000 324.000000 337.250000 
220.000000 326.000000 344.250000 
220.000000 328.000000 336.750000 
220.000000 330.000000 337.750000 
220.000000 332.000000 343.250000 
220.000000 334.000000 346.750000 
220.000000 336.000000 340.000000 
220.000000 338.000000 339.750000 
220.000000 340.000000 342.000000 
220.000000 342.000000 348.250000 
220.000000 344.000000 342.750000 
220.000000 346.000000 353.250000 
220.000000 348.000000 350.750000 
220.000000 350.000000 351.000000 
220.000000 352.000000 351.000000 
220.000000 354.000000 362.750000 
220.000000 356.000000 351.250000 
220.000000 358.000000 356.000000 
220.000000 360.000000 353.000000 
220.000000 362.000000 362.500000 
220.000000 364.000000 355.000000 
220.000000 366.000000 358.500000 
220.000000 368.000000 369.250000 
220.000000 370.000000 361.500000 
220.000000 372.000000 361.500000 
220.000000 374.000000 364.250000 
220.000000 376.000000 364.750000 
220.000000 378.000000 365.500000 
220.000000 380.000000 374.250000 
220.000000 382.000000 366.250000 
220.000000 384.000000 377.500000 
220.000000 386.000000 368.750000 
220.000000 388.000000 373.500000 
220.000000 390.000000 382.000000 
220.000000 392.000000 383.500000 
220.000000 394.000000 382.000000 
220.000000 396.000000 375.750000 
220.000000 398.000000 380.750000 
220.000000 400.000000 379.250000 
220.000000 402.000000 377.250000 
220.000000 404.000000 378.500000 
220.000000 406.000000 376.500000 
220.000000 408.000000 390.000000 
220.000000 410.000000 379.000000 
220.000000 412.000000 384.250000 
220.000000 414.000000 386.500000 
220.000000 416.000000 393.250000 
220.000000 418.000000 384.500000 
220.000000 420.000000 388.750000 
220.000000 422.000000 399.000000 
220.000000 424.000000 393.250000 
220.000000 426.000000 392.000000 
220.000000 428.000000 396.250000 
220.000000 430.000000 396.000000 
220.000000 432.000000 402.500000 
220.000000 434.000000 393.750000 
220.000000 436.000000 393.750000 
220.000000 438.000000 394.750000 
220.000000 440.000000 398.000000 
220.000000 442.000000 393.750000 
220.000000 444.000000 395.750000 
220.000000 446.000000 399.750000 
220.000000 448.000000 402.250000 
220.000000 450.000000 404.500000 
220.000000 452.000000 394.750000 
220.000000 454.000000 398.500000 
220.000000 456.000000 398.750000 
220.000000 458.000000 402.750000 
220.000000 460.000000 407.000000 
220.000000 462.000000 404.750000 
220.000000 464.000000 403.500000 
220.000000 466.000000 403.500000 
220.000000 468.000000 404.000000 
220.000000 470.000000 408.750000 
220.000000 472.000000 403.750000 
220.000000 474.000000 408.250000 
220.000000 476.000000 403.250000 
220.000000 478.000000 408.000000 
